-0.0471062 -0.966252 5.12672
-0.372026 -0.767094 5.33449
-0.0376253 -0.775412 5.13765
-0.210726 -0.773979 5.24775
1.17513 -0.0223665 2.40726
1.10065 -0.0385795 2.29724
-0.514245 -0.77695 5.39929
-0.40048 -1.03467 5.31794
0.482223 -0.152435 3.65204
-0.0933688 -1.03751 5.15158
-0.667826 -1.02044 5.42544
0.941688 -0.209559 3.56413
-0.36713 -0.275124 5.452
0.00762081 -0.148307 4.05867
-1.15531 -0.446296 5.63326
1.12254 0.173957 3.30921
0.44004 -0.202008 3.72276
-0.679885 -0.972157 5.43519
-0.661514 -0.266639 5.62184
1.22127 -0.174387 2.51713
1.26088 -0.0297514 2.59852
0.656506 -1.1479 4.53775
-0.0196333 -0.375732 4.36906
0.0386273 -0.556497 5.10664
-0.828529 -1.37801 5.43092
0.177163 -1.08788 4.96044
-0.548763 -0.424664 5.47797
0.462977 -0.114967 3.69795
-0.310124 -0.403901 5.34275
-1.06291 -0.44529 5.63746
-0.261523 -0.657734 5.29528
1.07955 0.161577 3.42355
-0.263114 -0.896882 5.26516
0.864252 -0.884097 4.26329
0.322425 -1.09353 4.8502
1.0081 -0.891118 4.04603
0.96635 -1.03319 4.12484
-1.54896 -0.439399 5.68646
1.29472 -0.0210667 2.67582
0.118878 -0.849405 5.01936
0.0003621 -0.0285576 4.08718
0.331432 -1.17864 4.83935
1.12132 0.167228 2.87243
1.08403 -0.0983113 3.7163
-0.969099 -1.08035 5.50116
0.20171 -0.945612 4.94783
-0.271072 -1.05 5.25042
-1.54602 -0.681451 5.63341
-0.966245 -0.996145 5.51156
1.11624 -0.093259 3.5737
1.0175 0.105397 3.63587
-1.08766 -1.3388 5.49365
0.862748 0.0482529 3.49796
1.0966 0.134958 3.39245
1.1095 -0.0887141 2.9035
0.330287 -1.29201 4.8552
1.22546 -0.950999 3.65918
-0.543539 -0.889574 5.39272
-0.0180268 -0.657358 5.13853
1.15395 -0.152173 3.37218
-1.10342 -0.856636 5.55748
0.998911 0.0592988 3.68231
-1.20441 -1.46399 5.48604
-0.326387 -0.5622 5.31772
1.1536 -0.270774 3.69412
0.657293 -1.02216 4.52503
-0.410122 -1.12706 5.31364
0.054002 -0.890072 5.06499
0.680681 -1.08644 4.50129
-0.546878 -1.41358 5.34459
1.13329 0.181326 2.80317
0.178661 -0.578886 4.99309
0.999046 0.00873174 3.51708
0.622099 -0.954252 4.55433
0.403944 -1.08276 4.78162
-1.09402 -1.24901 5.50078
0.894531 -0.946392 4.22142
-1.52536 -1.4278 5.49934
-0.488268 -0.657214 5.40087
0.804619 -1.05224 4.34812
1.11567 -0.0571415 2.91312
1.05877 -1.00134 3.97378
1.22174 -0.827381 3.64054
-0.139801 -1.06635 5.17689
-1.53026 -0.907206 5.58845
-1.52402 -0.599932 5.64767
1.00369 -0.135379 3.51498
0.0691161 -0.938117 5.05024
0.26253 -0.588705 4.93882
0.940212 -0.915527 4.15311
0.89801 -0.992173 4.21671
-0.3828 -0.459755 5.36201
1.21127 -0.0306281 2.48868
-0.189841 -0.560511 5.57765
0.581288 -0.952021 4.60116
0.479466 -1.08173 4.7035
-0.826405 -1.28051 5.44356
-1.19909 -0.933935 5.56023
-0.613561 -0.367218 5.55318
1.14685 -0.137909 2.36884
-0.665594 -1.08245 5.41472
0.387979 -0.611935 4.82261
-0.942634 -0.747257 5.54453
0.123671 -0.617488 5.03721
-1.31983 -1.20939 5.52598
0.815429 -0.898201 4.3292
-0.408852 -1.21885 5.30459
1.27581 -0.0616704 2.65341
0.103369 -0.724145 5.04501
-0.547131 -1.31137 5.3497
0.479527 0.00660185 3.76891
1.00935 -1.01969 4.05847
0.0160433 -0.23971 4.13602
1.17188 0.0778171 2.77581
0.248491 -1.09739 4.90575
0.924195 -0.955333 4.17971
0.453414 -0.562713 4.73674
-0.333012 -0.353844 5.32434
0.975245 -0.666389 4.10151
1.14973 -0.138491 2.52329
0.687602 -0.482038 4.42963
-0.231602 -0.846569 5.25291
0.376208 -1.17511 4.80752
-1.4144 -0.62919 5.63934
-0.11292 -1.13242 5.15334
1.14166 -0.0350879 3.31203
-0.352683 -0.515944 5.33214
-0.247961 -1.32969 5.21706
-0.968242 -1.37396 5.4718
-0.45525 -0.36105 5.44563
-0.832527 -0.872687 5.49715
0.677304 -0.953894 4.49744
-1.21579 -1.05415 5.54445
-1.56687 -0.631067 5.64631
-1.82666 0.234597 7.25062
-0.0997663 -0.312679 4.61018
0.108383 -0.668155 5.04593
-0.572637 -0.309504 5.53701
1.1949 -0.85066 3.69807
0.383897 -0.93234 4.78891
0.103393 -0.778876 5.04015
0.629135 -1.08034 4.55914
1.21199 -0.192789 2.50719
-1.11026 -1.41281 5.48313
1.01487 -0.106873 3.63553
-0.857924 -1.44741 5.42663
0.0332969 -0.749902 5.0932
-1.3202 -1.29801 5.51098
-0.97818 -1.16903 5.49476
-0.221577 -0.201035 4.77062
0.479016 -0.0824278 3.75281
-0.144614 -1.21231 5.17062
0.7645 -1.05673 4.3977
0.977911 -0.909824 4.09658
0.258744 -0.692409 4.92419
0.113369 -0.118281 4.0519
0.499389 -0.617224 4.70057
-0.259059 -0.744183 5.27826
-1.55202 -0.957116 5.57615
-0.887497 -0.829597 5.51286
-0.482928 -0.451013 5.43235
1.24936 -0.890814 3.59182
1.09332 -0.551666 3.89958
-0.00648667 -0.85987 5.10822
0.115673 -0.575915 5.03766
0.167139 -0.987018 4.97646
1.23492 -0.849295 3.61191
-0.599807 -1.39866 5.3606
-1.21296 -1.14128 5.53384
-1.68198 -0.621384 5.6519
0.232625 -0.548242 4.9461
1.16914 -0.857043 3.75189
0.379784 -0.807426 4.80022
1.27098 -0.784191 3.48812
-1.36918 -1.36027 5.51375
-0.728413 -1.01402 5.44569
0.352175 -0.690231 4.84085
0.997042 -0.0544527 3.26367
-0.702709 -1.20136 5.41825
1.21262 -0.285312 3.62348
-0.443583 -0.989119 5.33912
-0.742517 -0.369013 5.66185
1.10633 -0.0361225 3.66116
-1.53728 0.23668 7.17231
-0.350056 -0.282221 5.19007
1.07158 -0.909313 3.94198
1.14241 -0.0845529 3.41629
-0.150283 -0.98362 5.18831
1.12161 -0.986463 3.86502
1.13654 -0.0847415 2.67556
0.658922 -0.693377 4.53192
-0.34714 -1.03506 5.29449
0.579193 -0.598818 4.62308
-0.558722 -0.735035 5.42157
0.301251 -0.100338 3.96495
1.20077 0.119668 2.49064
-0.820149 -0.716895 5.51417
0.392993 -0.49439 4.45058
0.445756 -0.900714 4.73727
1.0875 -0.59064 3.9067
1.14423 -0.509341 3.79501
-0.0364501 -1.02449 5.11412
1.10599 -0.0613784 2.30454
-1.52067 -1.30102 5.5394
1.33261 -0.711731 3.13755
1.25606 -0.818031 3.54827
-1.06716 -0.741558 5.5769
0.502943 -0.517609 4.67231
1.21273 -0.602129 3.64212
-0.685647 -0.76618 5.46583
0.584337 -1.09973 4.60572
1.06791 -0.0357493 2.22425
-0.396954 -1.30058 5.29073
0.713883 -0.607065 4.47511
1.21746 -0.301905 2.50381
0.843536 -1.01469 4.29127
1.12602 0.0288595 2.64955
-1.35759 -0.795497 5.5969
-0.161067 -0.593182 5.2234
-2.48168 -0.439748 7.08298
1.19808 -0.956791 3.7155
0.723204 -1.06538 4.44891
0.633785 -0.993275 4.54474
0.251255 -1.27525 4.91028
0.85034 -0.956462 4.28029
-0.751513 -0.961764 5.45872
-0.0873712 -1.30641 5.13095
1.16927 -0.968176 3.77059
0.0728422 -0.635751 5.07876
-1.29379 -0.444704 5.65105
0.439076 -0.16844 3.76235
1.07193 -0.0545307 3.73354
-1.01769 -0.938877 5.52993
-0.952762 -0.82857 5.53984
-0.23751 -0.43457 5.06994
1.18233 0.171074 2.78389
-0.261335 -0.997005 5.25162
0.770231 -0.600242 4.3975
0.309646 -0.663718 4.88879
1.25359 -0.512173 3.18095
-0.038709 -1.34365 5.11738
-1.38725 -1.28582 5.52247
0.500398 -0.572678 4.69644
0.583879 -1.14603 4.61046
1.09644 -0.509101 3.89674
-0.527545 -0.35868 5.49578
0.897873 -0.903605 4.21518
0.792664 -0.541843 4.37391
0.908228 -1.03235 4.20759
0.258809 -0.778037 4.91574
-0.137176 -0.641655 5.21533
-1.4644 -0.937927 5.58168
-0.35096 -1.11146 5.28678
0.256975 -1.17196 4.90134
0.586644 -0.50264 4.58481
1.25459 -0.562809 3.54582
0.1477 -0.696273 5.01432
0.563405 0.00259834 3.51211
0.805899 -0.112146 3.0566
-0.269816 -0.51203 5.24106
-1.71155 -0.82354 5.60442
1.12621 -0.0568323 3.55614
-2.21001 0.237955 7.29923
-0.164345 -1.33226 5.17249
1.15661 -0.543568 3.7742
-2.10595 0.243901 7.28687
0.467125 -0.50267 4.58742
-0.366708 -0.404484 5.34024
-0.465625 -1.31227 5.31588
0.694918 -0.198129 3.18325
-1.62472 0.21106 7.18699
0.319152 -0.156193 3.92497
-0.258505 -0.801512 5.27184
0.466841 -0.956211 4.7194
1.2246 -0.250689 3.32823
-1.52205 -0.733114 5.62516
0.442596 -0.385017 3.83396
-1.18519 -0.983217 5.54894
-1.25953 -0.915085 5.56928
-1.2566 -1.21867 5.52299
1.13674 0.185068 2.6744
0.907155 -0.198468 3.43591
-1.50933 -0.99288 5.57357
-1.94449 -0.366019 6.67376
1.12846 -0.285002 3.76105
0.940903 -0.664186 4.15577
-1.26322 -1.37876 5.50739
0.871308 -1.05053 4.26558
1.23966 -0.460567 2.90792
0.0130353 -0.812048 5.10239
-0.689494 -1.27518 5.40343
0.696491 -1.02386 4.47812
1.14902 -0.00621733 2.35265
-1.15707 -0.682864 5.59841
1.24597 -0.203017 2.58579
-0.754008 -1.28437 5.41972
1.08848 -0.94241 3.91522
-1.34284 0.0392893 7.03839
-0.200272 -1.38799 5.18743
0.77308 -0.458107 4.31837
-0.0171345 -0.579858 5.14104
1.07738 0.118331 3.47538
1.23222 -0.454551 3.05173
0.44565 -0.0837261 3.77526
1.37153 -0.502717 3.16056
0.52225 -1.08856 4.66151
1.10621 -0.205932 3.69723
0.469645 -0.415875 4.06644
-0.316637 -1.39093 5.24857
-1.07655 -0.651727 5.59325
-0.756464 -1.45579 5.40497
0.566173 -0.662697 4.63345
1.15001 -0.464505 3.79056
0.959442 -0.973393 4.12438
0.658123 -0.520453 4.51185
-0.731194 -1.10636 5.43395
-1.01775 -1.25069 5.48757
1.24862 0.166706 2.93819
-0.577245 -0.828493 5.41211
-1.68548 -1.34814 5.51908
-1.9233 0.242802 7.26752
1.09957 -0.47434 3.89393
-0.889416 -0.472105 5.58382
-1.53089 -1.18267 5.54357
1.15392 -0.587447 3.77877
1.18717 -0.357313 2.28684
-0.818025 -1.15659 5.45392
-1.17414 -1.38968 5.49046
1.35332 -0.74147 3.34455
1.14515 0.175716 3.22617
1.23259 -0.228208 2.91236
-0.0698855 -0.476129 4.67951
-0.200951 -0.686599 5.25175
-1.02609 -1.42054 5.4756
-0.353796 -0.938797 5.30751
0.713449 -0.655654 4.47306
-0.78478 -1.33494 5.42074
-0.534672 -1.04374 5.36975
-0.538901 -1.18214 5.36109
-0.48306 -0.30112 5.48185
1.00547 -0.951764 4.05402
1.19628 -0.900118 3.70564
0.631658 -0.643954 4.56183
1.14252 0.0123924 3.30923
0.760831 -1.00486 4.39928
1.09345 -0.316918 3.83767
-2.02053 0.236744 7.28305
-1.39139 -0.716222 5.61823
-1.77057 -0.448809 5.68605
-0.653046 -0.926381 5.43056
1.26609 -0.936069 3.56778
-1.46652 -1.45673 5.4949
0.69993 -1.13326 4.48137
-1.29145 -0.724843 5.60553
-0.406455 -0.242764 5.28637
-1.68856 -1.20324 5.54152
0.00871135 -0.102962 4.05845
-0.0404212 -1.13038 5.10546
1.22133 -0.90042 3.65337
-0.503355 -1.36972 5.3287
1.06556 -0.872026 3.94657
0.0142 -1.05396 5.07912
1.20834 -0.534851 3.65048
1.15384 -0.628779 3.77883
1.25517 -0.611121 3.54991
1.2893 -0.316312 3.23317
0.80248 -0.634793 4.36359
-0.307369 -1.17398 5.25946
-1.68792 -0.682358 5.63911
-1.72761 -0.762845 5.6179
0.336944 -0.994249 4.83848
-0.07248 -1.22971 5.12725
-1.66294 -0.734025 5.6295
0.235608 -0.130366 4.01568
-1.45387 -1.35154 5.51729
0.0694588 -0.832567 5.05578
0.572858 -0.381863 4.24623
1.119 0.0568248 2.31603
0.23199 -0.0895528 4.02264
0.415515 -0.776006 4.77109
-0.344882 -1.22124 5.27607
-2.03217 0.167727 7.25658
-1.19091 0.0452359 6.95335
1.10631 -0.899841 3.87325
1.22388 -0.33329 2.51433
-0.815561 -0.441681 5.59496
1.09763 -0.418755 3.90103
1.1938 -0.0550553 2.46415
1.22837 -0.35905 3.62333
-0.925742 -1.43355 5.44926
-1.14095 -1.30535 5.50065
0.898836 -1.12723 4.239
1.20301 -0.200497 2.86993
0.201217 -0.314504 3.75387
0.775739 -0.901755 4.38273
1.2621 -0.339961 3.09248
1.24566 -0.373269 2.55878
-1.68701 -1.29552 5.53481
1.10114 0.158277 2.29016
0.656004 -0.58741 4.53893
-1.74506 0.233688 7.23576
-0.889214 -1.14652 5.47234
-0.306278 -1.31848 5.24752
0.225937 -0.874855 4.93181
0.724034 -0.51725 4.40764
1.12674 -0.11936 3.52159
0.816164 -0.190094 3.26682
0.77901 -0.439111 3.79726
0.507367 -0.772654 4.67733
-1.44432 -0.741844 5.61707
-0.61285 -1.29811 5.37584
0.709253 -0.708932 4.47422
0.477713 -0.700856 4.71155
0.765754 -0.699881 4.39579
0.56578 -0.709393 4.63215
0.107905 -0.159557 4.04044
1.0764 -0.633067 3.92453
-0.218 -1.05301 5.22104
0.766146 -0.648003 4.39787
1.17756 -0.246945 2.52424
-1.04865 -1.29638 5.48668
-1.315 -1.36385 5.50822
0.0122585 -1.3462 5.08045
0.50996 0.454632 5.02156
0.984892 -0.996624 4.09631
0.385557 -0.860116 4.77848
1.25405 -0.528001 3.54147
-0.0947361 -0.677843 5.18361
-0.481113 -0.705556 5.38901
-1.90735 0.166792 7.24021
0.753503 -0.945673 4.40562
1.22536 -0.400472 3.3249
0.502348 -0.203849 3.70797
0.182767 -0.745952 4.97668
-0.958488 -1.23888 5.47859
1.2976 -0.350133 3.28427
0.0073119 -0.196282 4.05548
-1.46794 -0.886602 5.59178
0.192027 -0.0907852 4.03753
0.481836 -0.827928 4.69495
0.329716 -0.81484 4.84413
1.05501 -0.945851 3.97122
0.133822 -0.946597 4.99986
-2.83083 0.0918328 7.81713
0.804544 -0.995928 4.3464
0.724667 -0.172835 3.12832
-0.935488 -0.906041 5.51555
-0.636919 -1.16971 5.39708
0.928989 -0.0358581 3.50131
0.722037 -0.561204 4.46488
-0.890096 -1.34324 5.45155
-0.605928 -1.03954 5.39787
0.535149 -0.987768 4.65087
-1.45137 -1.19263 5.54138
0.205081 -0.202319 3.9887
0.466694 -1.01544 4.71653
-0.363401 -0.988252 5.30538
1.25555 -0.38256 3.25195
1.17031 -0.913292 3.75834
-0.233861 -1.19286 5.22272
0.806901 -0.425365 4.59395
-1.6337 0.136625 7.1689
1.23813 -0.499683 2.58344
-0.906116 -0.123859 6.72561
0.548201 -0.375452 4.01591
-1.69275 -0.421057 5.69465
-1.32266 -0.861093 5.58556
0.282843 -0.870619 4.88344
1.24212 -0.408801 2.86476
-0.451396 -0.898096 5.35572
-1.08137 -1.00007 5.53272
-0.021009 -1.19324 5.09425
0.825922 -0.932509 4.31097
1.01064 -0.183751 3.68286
0.559487 -0.565825 4.63727
0.987919 -0.574001 4.08022
0.411004 -0.529961 4.72219
-1.21699 -0.622187 5.62152
0.172513 -0.281825 3.80556
-0.787845 -1.02661 5.45963
1.20063 -0.472696 2.50124
-1.53951 0.129031 7.15122
1.30756 -0.251885 3.50545
1.0984 -0.372551 3.90421
-1.73525 0.144674 7.20377
0.944697 -0.580759 4.15235
-1.08243 -1.12521 5.5162
-1.29461 -0.975466 5.56298
-0.0561671 -0.546887 5.15973
1.25001 -0.585293 3.14797
1.18501 -0.467507 3.71243
-0.0230294 -0.723413 5.13584
0.133956 -0.901716 5.00234
1.34083 -0.744448 3.29329
-1.41822 -0.335862 5.97195
0.451272 -0.744007 4.73587
-1.3945 -0.841649 5.59486
-1.60642 -1.35239 5.5187
1.1508 -0.424336 3.7948
1.25914 -0.343026 3.26961
-1.40121 -0.446705 5.6667
1.13636 -0.195373 3.62748
-1.38518 -1.20082 5.53314
-0.181293 -1.10962 5.19761
0.978583 -0.613945 4.09557
0.782857 -0.965608 4.37084
0.568487 -1.05212 4.61474
1.03195 -0.858884 4.0129
-1.26337 -1.4461 5.49269
1.26066 -0.43757 3.22365
-0.401373 -0.549184 5.37164
1.178 -0.291654 3.7103
0.26792 -1.00102 4.89202
1.17311 -0.445614 2.44611
-1.61945 -1.19305 5.54119
-0.893387 -1.01771 5.49052
-0.419682 -0.501964 5.39054
-0.409884 -0.70572 5.35606
0.609304 -1.04675 4.57504
-1.64643 -0.170155 7.05516
-0.878458 -0.522979 5.54789
-0.88654 -1.26918 5.45891
0.202425 -0.819733 4.95248
-0.850901 -0.778375 5.51213
0.296457 -0.284245 3.82498
0.142554 -0.262218 3.81315
0.510161 -0.959075 4.67322
0.618211 -0.525168 4.55948
1.05761 -0.675947 3.96838
1.14206 0.0597443 2.68779
1.12174 -0.539927 3.84179
1.17975 -0.518973 3.71909
-0.356398 -0.683051 5.33476
1.36343 -0.948057 3.91619
0.561255 -0.7607 4.63471
1.14069 0.136656 2.36063
1.28923 -0.226729 2.68415
-0.14652 -0.709942 5.21097
1.23934 -0.480877 2.89505
-0.145311 -0.893517 5.19204
0.709001 -0.749001 4.47152
-0.42924 -0.620163 5.38138
-1.91087 -0.00934869 7.18645
0.509952 -1.03133 4.6712
-0.0933943 -0.939818 5.15781
-0.175378 -0.102887 4.52856
-2.31948 -0.339962 7.0811
-0.7417 -0.877122 5.46381
0.339999 -0.863738 4.82165
-1.30981 -1.09582 5.54416
0.582853 0.0350675 3.5267
-1.14239 -1.11769 5.52577
-1.19936 -1.1991 5.52295
1.14036 -0.916537 3.81368
1.15141 -0.387045 3.79709
-1.0125 -0.865408 5.54757
1.21447 -0.397506 3.64752
1.41023 -0.791829 3.25854
-0.0882519 -0.808077 5.16371
-1.39729 -0.961916 5.57151
1.29232 -0.588793 2.69214
1.14218 -0.866374 3.80516
-1.16821 -0.867899 5.56408
-1.4484 -0.836881 5.59778
0.231766 -0.294869 3.81234
-1.58159 -1.45648 5.49534
-1.2108 -0.729209 5.59996
-1.59832 -0.718175 5.62939
-2.82195 0.50581 7.82566
-0.0217941 -0.92215 5.11435
-1.55007 -1.12159 5.55398
-0.249623 -1.11394 5.23473
0.358722 -0.354907 3.7593
-1.14928 -0.738147 5.58874
-0.164692 -1.16749 5.18127
1.14483 -0.995 3.82101
1.19368 -0.364128 3.70508
-2.26263 0.0934467 7.26653
-0.598714 -0.918114 5.41338
0.956017 -0.865838 4.12597
0.809353 -0.680251 4.34259
-1.60591 -0.879549 5.60395
-0.910335 -0.670644 5.54403
0.309904 -0.328798 3.84808
-0.659427 -1.45794 5.37801
1.29974 -0.742361 3.41095
1.11109 -0.859042 3.85975
0.610651 -0.714841 4.5874
-0.0992631 -0.581006 5.19121
-1.54772 -1.03814 5.56344
-0.18727 -0.926324 5.21453
-1.2641 -0.835436 5.58435
0.941488 -1.08708 4.17691
1.19288 0.0448497 2.8248
1.08787 -0.0179599 2.24357
0.367386 -1.11646 4.81646
-1.23577 -0.0785573 6.94149
-1.50428 0.0616137 7.12268
-0.334629 -0.62345 5.3278
0.964182 0.00557373 3.47623
-1.01909 -0.0680077 6.86286
0.646671 -0.000405514 2.98159
0.671984 -0.377297 4.12492
-2.42564 0.097219 7.29789
-0.314339 -0.724539 5.31487
1.04329 -0.913525 3.98904
0.674992 -0.633783 4.51983
1.22155 -0.320478 3.32928
1.23099 -0.390548 2.89429
1.15172 -0.341243 3.79534
0.765503 -0.74052 4.39558
-1.39084 -0.303974 6.35709
1.22293 -0.423716 2.8728
1.21761 -0.6949 3.63622
1.19754 -0.169864 2.48487
-1.40204 -1.08251 5.55303
0.57943 -1.24101 4.62385
1.1757 -0.820162 3.73319
-1.39651 -0.421444 5.75713
1.21871 -0.515078 2.53261
0.789734 -0.323917 3.45442
0.37885 0.0519895 3.90713
0.711982 -0.977094 4.45617
-0.699978 -0.202609 5.84982
1.01005 -1.0722 4.06812
-1.74991 -0.641398 5.64664
0.484625 0.544673 4.2329
1.28321 -0.92733 3.52698
0.187059 -1.02807 4.95498
0.41893 -0.960636 4.76046
0.729005 -0.375817 4.00086
0.593177 -0.999711 4.59117
-1.1692 -1.25609 5.50921
-1.82478 0.145486 7.22218
-0.406535 -0.937627 5.32821
0.868083 -0.743506 4.26192
0.347528 -0.765196 4.83757
-1.69437 -0.318872 6.46371
-0.125882 -0.43457 4.75159
1.17272 -0.40269 3.75144
-0.542835 -0.664874 5.42177
0.373552 -0.124969 3.86543
0.833826 -0.709928 4.31235
1.33552 0.305435 3.29661
-0.522692 -0.834829 5.39098
0.613404 0.10025 3.73392
-2.10941 -0.276213 6.75622
0.755109 -0.28281 3.44521
0.246512 -1.32002 4.91223
0.304149 -0.539108 4.84374
0.188976 -0.128376 4.0308
-1.39758 -1.46599 5.49144
0.99912 -0.739468 4.06113
0.0988457 -0.992383 5.02532
-1.09589 -1.05074 5.52805
-1.4589 -1.04462 5.56478
1.11342 -0.693639 3.85627
1.26842 -0.541975 2.64627
-1.68058 -0.963593 5.57861
-2.12107 0.161352 7.26799
1.36096 -0.818926 3.19559
-1.29531 -0.665401 5.61803
0.802644 -0.185777 3.49967
1.03429 -0.713705 4
1.21378 -0.868681 3.66448
1.30756 -0.275486 2.72457
-0.508966 -0.184376 5.47827
0.582467 0.0742744 3.58105
1.25449 -0.654142 3.54487
-1.02421 -1.47928 5.46823
1.18641 -0.188544 2.86715
0.206254 -0.2428 3.73372
0.987798 1.04499 6.47004
0.109417 -1.09879 5.00742
1.21189 -0.542073 2.86114
1.20969 -0.165849 2.85717
-0.462917 -0.583281 5.40203
-1.80512 -0.190114 6.74704
1.14548 0.021563 2.38215
1.20637 -0.23791 3.50859
0.150148 -0.125729 4.05615
-1.62148 -0.825171 5.61682
-1.07337 1.15629 6.08582
1.23852 -0.385448 3.59848
1.0059 -0.256452 3.8211
-1.56069 -0.2971 6.62288
1.2387 -0.315249 3.59435
1.15384 -0.6726 3.77957
-1.01503 -0.149031 6.86343
1.18331 -0.24165 3.56081
-1.63332 -1.26082 5.52356
-0.667998 -0.107837 6.07417
-1.89871 0.077753 7.21295
1.25743 -0.280143 3.2479
-1.63807 -1.08537 5.56248
-1.30343 -0.369738 6.63003
1.20353 -0.203776 2.5025
0.909268 -0.198207 3.5609
-0.897346 -0.399834 5.73658
-1.67318 -1.46885 5.48994
0.676264 0.0282753 3.257
0.438716 -0.00339499 3.825
0.654289 -0.796598 4.53222
1.21095 -0.379915 2.61161
0.300203 -0.747176 4.88999
-1.46037 -1.11917 5.55307
1.22844 -0.448357 3.31401
1.30179 -0.214105 2.68865
1.01676 -0.653416 4.02298
0.929958 0.0427045 3.4728
-1.40823 -0.542089 5.65346
0.0639571 -0.15008 4.05415
1.09463 -0.991354 3.90901
1.07747 -0.134308 3.71621
1.05921 -0.222165 3.80292
1.14364 -0.0507592 2.38255
-1.18517 -0.577153 5.62271
1.00222 -0.053188 3.59473
0.275201 -0.134607 3.97799
1.22471 -0.354488 3.31845
0.230296 -0.314052 3.8167
-0.544871 -1.09837 5.36881
-1.7651 -0.50885 5.67231
-2.22301 0.161876 7.27643
1.21958 -0.36493 2.56773
1.11653 -0.585781 3.85383
0.801257 -0.278641 3.43275
0.968706 -0.136718 3.5254
0.757606 -0.23758 3.24077
0.673742 -0.854807 4.50731
-1.21946 -0.490596 5.6339
1.20864 -0.462743 3.64992
0.930964 -0.703341 4.16639
0.139971 -0.317995 3.85149
1.23765 -0.0638229 2.57725
0.929342 -0.0876419 3.27476
0.6816 -0.904503 4.48969
0.906427 -0.319622 3.75279
-1.74664 -0.906482 5.607
1.27736 -0.545624 2.64753
-0.84335 -0.221413 6.07658
-0.923062 0.114214 6.87717
1.14069 0.163642 2.68132
1.26944 -0.262853 2.97451
0.968999 -0.735554 4.11682
0.876984 -0.188981 3.39402
1.18679 -0.992883 3.74109
1.17798 -0.481775 2.45439
-1.89175 0.370785 7.35386
0.524766 -0.655989 4.67087
0.388837 -0.157298 3.81679
-0.880044 -0.729235 5.52631
1.23482 -0.511268 3.59741
-1.70851 -1.3919 5.51065
-1.29763 -1.48343 5.4865
-0.0506939 -1.34691 5.17653
1.17293 -0.708635 3.73926
0.120885 -0.391743 4.18215
0.730915 -0.237557 2.82039
0.531294 -0.918318 4.65709
-2.263 0.31554 7.32755
1.12502 -0.48455 3.84068
1.00875 -0.610071 4.04795
-1.36705 -0.657054 5.62622
1.09018 -0.789502 3.90422
0.113051 0.140241 4.03656
1.19982 -0.322109 3.6814
0.234115 -1.04347 4.92201
-0.127974 -1.39025 5.14843
-0.818599 -0.498291 5.5529
0.636183 0.0366604 3.44547
1.10304 -0.120699 3.61559
0.381599 -0.401083 4.06957
1.31567 -0.798207 3.44289
-0.760535 -0.75852 5.48273
-1.54379 -0.844301 5.60924
